x,y,z,C,R,G,B
-8.112450908440238,-3.5676256781289637,-8.112450908440238,1,0.5618904901739129,0.8900118113923152,0.2376685578364376
-7.093925858764021,-4.082278015867443,-7.093925858764021,1,0.5618904901739129,0.8900118113923152,0.2376685578364376
-8.728530722172042,-3.822611950568682,-8.728530722172042,1,0.5618904901739129,0.8900118113923152,0.2376685578364376
-7.197893095202018,-4.137425853076168,-7.197893095202018,1,0.5618904901739129,0.8900118113923152,0.2376685578364376
-7.71428318498536,-3.715411672272805,-7.71428318498536,1,0.5618904901739129,0.8900118113923152,0.2376685578364376
-6.917782688726782,-3.6471402038268383,-6.917782688726782,1,0.5618904901739129,0.8900118113923152,0.2376685578364376
-6.353836421651007,-3.647828535818584,-6.353836421651007,1,0.5618904901739129,0.8900118113923152,0.2376685578364376
-8.078094109613648,-3.5305338166497786,-8.078094109613648,1,0.5618904901739129,0.8900118113923152,0.2376685578364376
-7.393149815340749,-3.555977363065132,-7.393149815340749,1,0.5618904901739129,0.8900118113923152,0.2376685578364376
-6.8444755888255,-3.604828836746132,-6.8444755888255,1,0.5618904901739129,0.8900118113923152,0.2376685578364376
-6.323174653013084,-3.6293447605635705,-6.323174653013084,1,0.5618904901739129,0.8900118113923152,0.2376685578364376
-8.17386253470176,-3.568822038204936,-8.17386253470176,1,0.5618904901739129,0.8900118113923152,0.2376685578364376
-7.450483319858762,-3.5816324058674045,-7.450483319858762,1,0.5618904901739129,0.8900118113923152,0.2376685578364376
-6.890076342122681,-3.625466768696164,-6.890076342122681,1,0.5618904901739129,0.8900118113923152,0.2376685578364376
-6.379540269637141,-3.656517870929152,-6.379540269637141,1,0.5618904901739129,0.8900118113923152,0.2376685578364376
-8.16183077932433,-3.5594989240735857,-8.16183077932433,1,0.5618904901739129,0.8900118113923152,0.2376685578364376
-7.138318570478699,-4.078723380401922,-7.138318570478699,1,0.5618904901739129,0.8900118113923152,0.2376685578364376
-8.001042164435889,-3.824698551730737,-8.001042164435889,1,0.5618904901739129,0.8900118113923152,0.2376685578364376
-7.0798453450355625,-4.040724073708123,-7.0798453450355625,1,0.5618904901739129,0.8900118113923152,0.2376685578364376
-8.266319496622383,-3.5857181917625778,-8.266319496622383,1,0.5618904901739129,0.8900118113923152,0.2376685578364376
-7.568071280514836,-3.616429511498608,-7.568071280514836,1,0.5618904901739129,0.8900118113923152,0.2376685578364376
-6.930708736887645,-3.626825336464759,-6.930708736887645,1,0.5618904901739129,0.8900118113923152,0.2376685578364376
-6.376280313825108,-3.634749301539544,-6.376280313825108,1,0.5618904901739129,0.8900118113923152,0.2376685578364376
-8.21266953591836,-3.559380945950098,-8.21266953591836,1,0.5618904901739129,0.8900118113923152,0.2376685578364376
-7.533033890848437,-3.5948431860461336,-7.533033890848437,1,0.5618904901739129,0.8900118113923152,0.2376685578364376
-6.91221109462681,-3.613458375368992,-6.91221109462681,1,0.5618904901739129,0.8900118113923152,0.2376685578364376
-6.38293134820097,-3.63765518651372,-6.38293134820097,1,0.5618904901739129,0.8900118113923152,0.2376685578364376
-8.189362213162827,-3.5457147811872964,-8.189362213162827,1,0.5618904901739129,0.8900118113923152,0.2376685578364376
-7.515589812741831,-3.584586372204103,-7.515589812741831,1,0.5618904901739129,0.8900118113923152,0.2376685578364376
-6.911801511799436,-3.6098656676318224,-6.911801511799436,1,0.5618904901739129,0.8900118113923152,0.2376685578364376
-6.402891249116127,-3.64385032165053,-6.402891249116127,1,0.5618904901739129,0.8900118113923152,0.2376685578364376
-8.365336201010814,-3.617745372557927,-8.365336201010814,1,0.5618904901739129,0.8900118113923152,0.2376685578364376
-7.14302486207389,-4.052393797334936,-7.14302486207389,1,0.5618904901739129,0.8900118113923152,0.2376685578364376
-7.991162667115404,-3.7899011142085777,-7.991162667115404,1,0.5618904901739129,0.8900118113923152,0.2376685578364376
-7.239365713350314,-3.7633073964232393,-7.239365713350314,1,0.5618904901739129,0.8900118113923152,0.2376685578364376
-7.110418469595888,-4.029303408757861,-7.110418469595888,1,0.5618904901739129,0.8900118113923152,0.2376685578364376
-7.771201088843369,-3.684252981334247,-7.771201088843369,1,0.5618904901739129,0.8900118113923152,0.2376685578364376
-7.010919666774515,-3.641444208452908,-7.010919666774515,1,0.5618904901739129,0.8900118113923152,0.2376685578364376
-6.409136220714447,-3.627471721690457,-6.409136220714447,1,0.5618904901739129,0.8900118113923152,0.2376685578364376
-8.29791745691479,-3.5661284164965235,-8.29791745691479,1,0.5618904901739129,0.8900118113923152,0.2376685578364376
-7.576552359273474,-3.5871142786938424,-7.576552359273474,1,0.5618904901739129,0.8900118113923152,0.2376685578364376
-6.912614629942598,-3.58670915826913,-6.912614629942598,1,0.5618904901739129,0.8900118113923152,0.2376685578364376
-6.42713246051927,-3.636768833013243,-6.42713246051927,1,0.5618904901739129,0.8900118113923152,0.2376685578364376
-8.290253280640488,-3.559235133741282,-8.290253280640488,1,0.5618904901739129,0.8900118113923152,0.2376685578364376
-7.591630503271452,-3.592306931593375,-7.591630503271452,1,0.5618904901739129,0.8900118113923152,0.2376685578364376
-6.974328025577053,-3.6153316506502,-6.974328025577053,1,0.5618904901739129,0.8900118113923152,0.2376685578364376
-6.414910469170034,-3.624681314103443,-6.414910469170034,1,0.5618904901739129,0.8900118113923152,0.2376685578364376
-8.381906542271738,-3.594427232478835,-8.381906542271738,1,0.5618904901739129,0.8900118113923152,0.2376685578364376
-7.15369331855357,-4.029485728804252,-7.15369331855357,1,0.5618904901739129,0.8900118113923152,0.2376685578364376
-8.032461465995008,-3.779345483410728,-8.032461465995008,1,0.5618904901739129,0.8900118113923152,0.2376685578364376
-7.250435054281835,-4.079311504541861,-7.250435054281835,1,0.5618904901739129,0.8900118113923152,0.2376685578364376
-8.622994351831338,-3.677735040703831,-8.622994351831338,1,0.5618904901739129,0.8900118113923152,0.2376685578364376
-7.806850268077475,-3.671861845240991,-7.806850268077475,1,0.5618904901739129,0.8900118113923152,0.2376685578364376
-7.109923044611775,-3.6652125699831104,-7.109923044611775,1,0.5618904901739129,0.8900118113923152,0.2376685578364376
-6.4933901987550575,-3.648900438888063,-6.4933901987550575,1,0.5618904901739129,0.8900118113923152,0.2376685578364376
-8.351107955478035,-3.558674571165371,-8.351107955478035,1,0.5618904901739129,0.8900118113923152,0.2376685578364376
-7.609236456076426,-3.574052312420066,-7.609236456076426,1,0.5618904901739129,0.8900118113923152,0.2376685578364376
-6.995586631755606,-3.602563133225523,-6.995586631755606,1,0.5618904901739129,0.8900118113923152,0.2376685578364376
-6.469644886169054,-3.6346655790816897,-6.469644886169054,1,0.5618904901739129,0.8900118113923152,0.2376685578364376
-8.2900924075323,-3.52908395850135,-8.2900924075323,1,0.5618904901739129,0.8900118113923152,0.2376685578364376
-7.68046171639691,-3.605543199692441,-7.68046171639691,1,0.5618904901739129,0.8900118113923152,0.2376685578364376
-7.012058830947235,-3.607640198269225,-7.012058830947235,1,0.5618904901739129,0.8900118113923152,0.2376685578364376
-6.453897964548073,-3.6206339875579054,-6.453897964548073,1,0.5618904901739129,0.8900118113923152,0.2376685578364376
-8.401171354846683,-3.57221424568525,-8.401171354846683,1,0.5618904901739129,0.8900118113923152,0.2376685578364376
-7.176422679938816,-4.013335616815908,-7.176422679938816,1,0.5618904901739129,0.8900118113923152,0.2376685578364376
-8.039511272774124,-3.752580379046621,-8.039511272774124,1,0.5618904901739129,0.8900118113923152,0.2376685578364376
-7.276837825781326,-4.06482473307156,-7.276837825781326,1,0.5618904901739129,0.8900118113923152,0.2376685578364376
-8.68475609758504,-3.672626633583218,-8.68475609758504,1,0.5618904901739129,0.8900118113923152,0.2376685578364376
-7.77466968476642,-3.6276390868147343,-7.77466968476642,1,0.5618904901739129,0.8900118113923152,0.2376685578364376
-7.137135072354806,-3.6515686967615655,-7.137135072354806,1,0.5618904901739129,0.8900118113923152,0.2376685578364376
-6.548174010028019,-3.6532976987579264,-6.548174010028019,1,0.5618904901739129,0.8900118113923152,0.2376685578364376
-8.387761132415516,-3.5439270999583656,-8.387761132415516,1,0.5618904901739129,0.8900118113923152,0.2376685578364376
-7.628320526192287,-3.554490465745708,-7.628320526192287,1,0.5618904901739129,0.8900118113923152,0.2376685578364376
-7.068036095771635,-3.612481125463502,-7.068036095771635,1,0.5618904901739129,0.8900118113923152,0.2376685578364376
-6.514824066387543,-3.633797064121067,-6.514824066387543,1,0.5618904901739129,0.8900118113923152,0.2376685578364376
-8.38379727420361,-3.5386312222107223,-8.38379727420361,1,0.5618904901739129,0.8900118113923152,0.2376685578364376
-7.764912076025554,-3.616157220718236,-7.764912076025554,1,0.5618904901739129,0.8900118113923152,0.2376685578364376
-7.020422492130595,-3.584746628739634,-7.020422492130595,1,0.5618904901739129,0.8900118113923152,0.2376685578364376
-6.537458568025078,-3.6411878560649806,-6.537458568025078,1,0.5618904901739129,0.8900118113923152,0.2376685578364376
-8.420379292103393,-3.5499171714824254,-8.420379292103393,1,0.5618904901739129,0.8900118113923152,0.2376685578364376
-7.211274948683612,-4.00383328770099,-7.211274948683612,1,0.5618904901739129,0.8900118113923152,0.2376685578364376
-8.14127365926395,-3.7697044315433703,-8.14127365926395,1,0.5618904901739129,0.8900118113923152,0.2376685578364376
-7.491205299414133,-3.807057861082073,-7.491205299414133,1,0.5618904901739129,0.8900118113923152,0.2376685578364376
-7.306706526891386,-4.052148240645687,-7.306706526891386,1,0.5618904901739129,0.8900118113923152,0.2376685578364376
-8.693223050373506,-3.644807976099765,-8.693223050373506,1,0.5618904901739129,0.8900118113923152,0.2376685578364376
-7.914363468823701,-3.663294543310021,-7.914363468823701,1,0.5618904901739129,0.8900118113923152,0.2376685578364376
-7.158987754421181,-3.635079934869936,-7.158987754421181,1,0.5618904901739129,0.8900118113923152,0.2376685578364376
-6.592558758833922,-3.651584498782801,-6.592558758833922,1,0.5618904901739129,0.8900118113923152,0.2376685578364376
-8.446522733060062,-3.5382543896399343,-8.446522733060062,1,0.5618904901739129,0.8900118113923152,0.2376685578364376
-7.713594211645661,-3.565462527481696,-7.713594211645661,1,0.5618904901739129,0.8900118113923152,0.2376685578364376
-7.11832008390201,-3.610680540891489,-7.11832008390201,1,0.5618904901739129,0.8900118113923152,0.2376685578364376
-6.543437723687247,-3.623481189918314,-6.543437723687247,1,0.5618904901739129,0.8900118113923152,0.2376685578364376
-8.487785004373126,-3.551882629250067,-8.487785004373126,1,0.5618904901739129,0.8900118113923152,0.2376685578364376
-7.799571428005132,-3.603221560876599,-7.799571428005132,1,0.5618904901739129,0.8900118113923152,0.2376685578364376
-7.13930204836677,-3.617877543104092,-7.13930204836677,1,0.5618904901739129,0.8900118113923152,0.2376685578364376
-6.565219964507529,-3.630304779488912,-6.565219964507529,1,0.5618904901739129,0.8900118113923152,0.2376685578364376
-8.526202183867717,-3.563762996380296,-8.526202183867717,1,0.5618904901739129,0.8900118113923152,0.2376685578364376
-7.233960508415097,-3.9874427808498503,-7.233960508415097,1,0.5618904901739129,0.8900118113923152,0.2376685578364376
-8.29204187103039,-3.808664886882196,-8.29204187103039,1,0.5618904901739129,0.8900118113923152,0.2376685578364376
-7.277195450504151,-4.006638854506191,-7.277195450504151,1,0.5618904901739129,0.8900118113923152,0.2376685578364376
-8.91525140413239,-3.705779091968632,-8.91525140413239,1,0.5618904901739129,0.8900118113923152,0.2376685578364376
-7.932820302805751,-3.642327841832839,-7.932820302805751,1,0.5618904901739129,0.8900118113923152,0.2376685578364376
-7.2022073357453085,-3.629275586582312,-7.2022073357453085,1,0.5618904901739129,0.8900118113923152,0.2376685578364376
-6.63611885910837,-3.649151720338783,-6.63611885910837,1,0.5618904901739129,0.8900118113923152,0.2376685578364376
-8.500714671837066,-3.5303379955538223,-8.500714671837066,1,0.5618904901739129,0.8900118113923152,0.2376685578364376
-7.789919897757385,-3.571778152661614,-7.789919897757385,1,0.5618904901739129,0.8900118113923152,0.2376685578364376
-7.147225385671537,-3.5978160608326437,-7.147225385671537,1,0.5618904901739129,0.8900118113923152,0.2376685578364376
-6.568543572847599,-3.611096762230912,-6.568543572847599,1,0.5618904901739129,0.8900118113923152,0.2376685578364376
-8.545748761285331,-3.545368964618973,-8.545748761285331,1,0.5618904901739129,0.8900118113923152,0.2376685578364376
-7.835133757611931,-3.5905234878345915,-7.835133757611931,1,0.5618904901739129,0.8900118113923152,0.2376685578364376
-7.173591953626096,-3.607636937962426,-7.173591953626096,1,0.5618904901739129,0.8900118113923152,0.2376685578364376
-6.576326674277327,-3.610145757120283,-6.576326674277327,1,0.5618904901739129,0.8900118113923152,0.2376685578364376
-8.610953038525158,-3.568193494576719,-8.610953038525158,1,0.5618904901739129,0.8900118113923152,0.2376685578364376
-7.250515646999931,-3.96761400077746,-7.250515646999931,1,0.5618904901739129,0.8900118113923152,0.2376685578364376
-7.270213298707056,-3.973777303902001,-7.270213298707056,1,0.5618904901739129,0.8900118113923152,0.2376685578364376
-8.90905916696035,-3.67119090784461,-8.90905916696035,1,0.5618904901739129,0.8900118113923152,0.2376685578364376
-7.958488194350939,-3.624591109486544,-7.958488194350939,1,0.5618904901739129,0.8900118113923152,0.2376685578364376
-7.274929611948538,-3.637977501907448,-7.274929611948538,1,0.5618904901739129,0.8900118113923152,0.2376685578364376
-6.676218832854388,-3.644571234327331,-6.676218832854388,1,0.5618904901739129,0.8900118113923152,0.2376685578364376
-8.608531116763267,-3.544187842707376,-8.608531116763267,1,0.5618904901739129,0.8900118113923152,0.2376685578364376
-7.834509061958466,-3.563174370666693,-7.834509061958466,1,0.5618904901739129,0.8900118113923152,0.2376685578364376
-7.178801760354387,-3.586148598343305,-7.178801760354387,1,0.5618904901739129,0.8900118113923152,0.2376685578364376
-6.591002304649252,-3.597155427846673,-6.591002304649252,1,0.5618904901739129,0.8900118113923152,0.2376685578364376
-8.772997688639474,-3.6081398045119153,-8.772997688639474,1,0.5618904901739129,0.8900118113923152,0.2376685578364376
-7.876153817577864,-3.580123882772412,-7.876153817577864,1,0.5618904901739129,0.8900118113923152,0.2376685578364376
-7.2302515516500625,-3.608381863551617,-7.2302515516500625,1,0.5618904901739129,0.8900118113923152,0.2376685578364376
-6.690065716859001,-3.645918975504855,-6.690065716859001,1,0.5618904901739129,0.8900118113923152,0.2376685578364376
-8.620011108808864,-3.540999032415101,-8.620011108808864,1,0.5618904901739129,0.8900118113923152,0.2376685578364376
-7.284468945131559,-3.957201991936408,-7.284468945131559,1,0.5618904901739129,0.8900118113923152,0.2376685578364376
-8.382349947360064,-3.788034835218341,-8.382349947360064,1,0.5618904901739129,0.8900118113923152,0.2376685578364376
-7.285874519105719,-3.9533551991240503,-7.285874519105719,1,0.5618904901739129,0.8900118113923152,0.2376685578364376
-8.00049285215536,-3.614126019805449,-8.00049285215536,1,0.5618904901739129,0.8900118113923152,0.2376685578364376
-7.299473047399721,-3.6222991221032106,-7.299473047399721,1,0.5618904901739129,0.8900118113923152,0.2376685578364376
-6.72250080810395,-3.643110653964027,-6.72250080810395,1,0.5618904901739129,0.8900118113923152,0.2376685578364376
-8.681353786086394,-3.543060059407128,-8.681353786086394,1,0.5618904901739129,0.8900118113923152,0.2376685578364376
-7.896431110425069,-3.5621402489815672,-7.896431110425069,1,0.5618904901739129,0.8900118113923152,0.2376685578364376
-7.283830437350039,-3.610734747554927,-7.283830437350039,1,0.5618904901739129,0.8900118113923152,0.2376685578364376
-6.635417289112044,-3.595018873428922,-6.635417289112044,1,0.5618904901739129,0.8900118113923152,0.2376685578364376
-8.77291389868193,-3.576677193000628,-8.77291389868193,1,0.5618904901739129,0.8900118113923152,0.2376685578364376
-7.954558244475722,-3.5863571757033577,-7.954558244475722,1,0.5618904901739129,0.8900118113923152,0.2376685578364376
-7.3084859565398785,-3.619462149116048,-7.3084859565398785,1,0.5618904901739129,0.8900118113923152,0.2376685578364376
-6.753971742532663,-3.653915682906767,-6.753971742532663,1,0.5618904901739129,0.8900118113923152,0.2376685578364376
-8.662303175693252,-3.5273510901504586,-8.662303175693252,1,0.5618904901739129,0.8900118113923152,0.2376685578364376
-7.2957012273626916,-3.934363329688252,-7.2957012273626916,1,0.5618904901739129,0.8900118113923152,0.2376685578364376
-8.16545316652143,-3.658523285536653,-8.16545316652143,1,0.5618904901739129,0.8900118113923152,0.2376685578364376
-7.342800359042558,-3.615767348711023,-7.342800359042558,1,0.5618904901739129,0.8900118113923152,0.2376685578364376
-6.749481656187077,-3.630988188109486,-6.749481656187077,1,0.5618904901739129,0.8900118113923152,0.2376685578364376
-8.857078266116552,-3.583117474588664,-8.857078266116552,1,0.5618904901739129,0.8900118113923152,0.2376685578364376
-8.000392411204588,-3.5795390820711908,-8.000392411204588,1,0.5618904901739129,0.8900118113923152,0.2376685578364376
-7.321788468423146,-3.6016110359301803,-7.321788468423146,1,0.5618904901739129,0.8900118113923152,0.2376685578364376
-6.73712454566639,-3.6234308490589697,-6.73712454566639,1,0.5618904901739129,0.8900118113923152,0.2376685578364376
-8.820004916913328,-3.564358217221685,-8.820004916913328,1,0.5618904901739129,0.8900118113923152,0.2376685578364376
-7.994734017493526,-3.5749983772132943,-7.994734017493526,1,0.5618904901739129,0.8900118113923152,0.2376685578364376
-7.322247995572591,-3.598345827874931,-7.322247995572591,1,0.5618904901739129,0.8900118113923152,0.2376685578364376
-6.804778865188019,-3.654460091718055,-6.804778865188019,1,0.5618904901739129,0.8900118113923152,0.2376685578364376
-7.375150119110662,-3.948049618249848,-7.375150119110662,1,0.5618904901739129,0.8900118113923152,0.2376685578364376
-8.227708810554823,-3.6561488869337166,-8.227708810554823,1,0.5618904901739129,0.8900118113923152,0.2376685578364376
-7.376287494840618,-3.604181959498536,-7.376287494840618,1,0.5618904901739129,0.8900118113923152,0.2376685578364376
-6.805530786936625,-3.6342634602281234,-6.805530786936625,1,0.5618904901739129,0.8900118113923152,0.2376685578364376
-8.963564437190117,-3.594235219231118,-8.963564437190117,1,0.5618904901739129,0.8900118113923152,0.2376685578364376
-8.029610774941178,-3.5630863928235987,-8.029610774941178,1,0.5618904901739129,0.8900118113923152,0.2376685578364376
-7.342687482034654,-3.5839551935762817,-7.342687482034654,1,0.5618904901739129,0.8900118113923152,0.2376685578364376
-6.779965592028312,-3.619698706710627,-6.779965592028312,1,0.5618904901739129,0.8900118113923152,0.2376685578364376
-8.835540160085127,-3.5391410892223623,-8.835540160085127,1,0.5618904901739129,0.8900118113923152,0.2376685578364376
-8.028516690765592,-3.560588879096754,-8.028516690765592,1,0.5618904901739129,0.8900118113923152,0.2376685578364376
-7.378187547254035,-3.5977753753221084,-7.378187547254035,1,0.5618904901739129,0.8900118113923152,0.2376685578364376
-6.824779735290557,-3.638268662260547,-6.824779735290557,1,0.5618904901739129,0.8900118113923152,0.2376685578364376
-7.40739717928107,-3.9361218373529088,-7.40739717928107,1,0.5618904901739129,0.8900118113923152,0.2376685578364376
-8.212404362487131,-3.619218435963216,-8.212404362487131,1,0.5618904901739129,0.8900118113923152,0.2376685578364376
-7.463680908537328,-3.6185612087953865,-7.463680908537328,1,0.5618904901739129,0.8900118113923152,0.2376685578364376
-6.876668288809114,-3.645182620861058,-6.876668288809114,1,0.5618904901739129,0.8900118113923152,0.2376685578364376
-8.950403939338447,-3.5571225993658597,-8.950403939338447,1,0.5618904901739129,0.8900118113923152,0.2376685578364376
-8.09174077709218,-3.560983256590632,-8.09174077709218,1,0.5618904901739129,0.8900118113923152,0.2376685578364376
-7.372545154079744,-3.5705633635759777,-7.372545154079744,1,0.5618904901739129,0.8900118113923152,0.2376685578364376
-6.819312666650734,-3.613864617311873,-6.819312666650734,1,0.5618904901739129,0.8900118113923152,0.2376685578364376
-9.08986818118973,-3.608692052827263,-9.08986818118973,1,0.5618904901739129,0.8900118113923152,0.2376685578364376
-8.11720654536484,-3.570161049221687,-8.11720654536484,1,0.5618904901739129,0.8900118113923152,0.2376685578364376
-7.42969140218283,-3.594718350258171,-7.42969140218283,1,0.5618904901739129,0.8900118113923152,0.2376685578364376
-6.8809699756607925,-3.641157583340926,-6.8809699756607925,1,0.5618904901739129,0.8900118113923152,0.2376685578364376
-7.427343553870406,-3.917547130472003,-7.427343553870406,1,0.5618904901739129,0.8900118113923152,0.2376685578364376
-8.66158662855293,-3.786922276432025,-8.66158662855293,1,0.5618904901739129,0.8900118113923152,0.2376685578364376
-7.253596851584344,-3.821374995438277,-7.253596851584344,1,0.5618904901739129,0.8900118113923152,0.2376685578364376
-8.308511344226416,-3.6311729461667257,-8.308511344226416,1,0.5618904901739129,0.8900118113923152,0.2376685578364376
-7.502641808661552,-3.609064170542525,-7.502641808661552,1,0.5618904901739129,0.8900118113923152,0.2376685578364376
-6.92495032279995,-3.643604781735547,-6.92495032279995,1,0.5618904901739129,0.8900118113923152,0.2376685578364376
-8.165843542610045,-3.563729889055837,-8.165843542610045,1,0.5618904901739129,0.8900118113923152,0.2376685578364376
-7.420413757269276,-3.565682742479196,-7.420413757269276,1,0.5618904901739129,0.8900118113923152,0.2376685578364376
-6.839217478178668,-3.597581538428089,-6.839217478178668,1,0.5618904901739129,0.8900118113923152,0.2376685578364376
-8.144620301748592,-3.5524370085622854,-8.144620301748592,1,0.5618904901739129,0.8900118113923152,0.2376685578364376
-7.519102694776176,-3.6095519225262302,-7.519102694776176,1,0.5618904901739129,0.8900118113923152,0.2376685578364376
-6.906267662627458,-3.627467056254721,-6.906267662627458,1,0.5618904901739129,0.8900118113923152,0.2376685578364376
-7.597685611058583,-3.977647866335437,-7.597685611058583,1,0.5618904901739129,0.8900118113923152,0.2376685578364376
-8.750757409404935,-3.7939725128870174,-8.750757409404935,1,0.5618904901739129,0.8900118113923152,0.2376685578364376
-8.458791180880405,-3.6659849674553207,-8.458791180880405,1,0.5618904901739129,0.8900118113923152,0.2376685578364376
-7.521789011896573,-3.589900106791048,-7.521789011896573,1,0.5618904901739129,0.8900118113923152,0.2376685578364376
-6.8803099643406025,-3.593208056375173,-6.8803099643406025,1,0.5618904901739129,0.8900118113923152,0.2376685578364376
-8.207929895486629,-3.5521595696671637,-8.207929895486629,1,0.5618904901739129,0.8900118113923152,0.2376685578364376
-7.508934476749194,-3.5799041154248368,-7.508934476749194,1,0.5618904901739129,0.8900118113923152,0.2376685578364376
-6.889224837859742,-3.5969458140382,-6.889224837859742,1,0.5618904901739129,0.8900118113923152,0.2376685578364376
-8.233492037283469,-3.561175122593436,-8.233492037283469,1,0.5618904901739129,0.8900118113923152,0.2376685578364376
-7.614993093014013,-3.626879963499986,-7.614993093014013,1,0.5618904901739129,0.8900118113923152,0.2376685578364376
-6.994480015935147,-3.646465089599369,-6.994480015935147,1,0.5618904901739129,0.8900118113923152,0.2376685578364376
-7.522616561672738,-3.90898915024379,-7.522616561672738,1,0.5618904901739129,0.8900118113923152,0.2376685578364376
-8.772410292406999,-3.7714305528531167,-8.772410292406999,1,0.5618904901739129,0.8900118113923152,0.2376685578364376
-7.333523608343774,-3.806179991153877,-7.333523608343774,1,0.5618904901739129,0.8900118113923152,0.2376685578364376
-8.509423834012132,-3.656959764739049,-8.509423834012132,1,0.5618904901739129,0.8900118113923152,0.2376685578364376
-7.59593874641251,-3.596718791429348,-7.59593874641251,1,0.5618904901739129,0.8900118113923152,0.2376685578364376
-7.009260563940174,-3.6332265052754313,-7.009260563940174,1,0.5618904901739129,0.8900118113923152,0.2376685578364376
-8.263800996948556,-3.5462772895660533,-8.263800996948556,1,0.5618904901739129,0.8900118113923152,0.2376685578364376
-7.516266838433655,-3.555140127406649,-7.516266838433655,1,0.5618904901739129,0.8900118113923152,0.2376685578364376
-6.950834418738308,-3.6020180099280004,-6.950834418738308,1,0.5618904901739129,0.8900118113923152,0.2376685578364376
-8.335360783658906,-3.574918929519198,-8.335360783658906,1,0.5618904901739129,0.8900118113923152,0.2376685578364376
-7.647780137380323,-3.613752304406209,-7.647780137380323,1,0.5618904901739129,0.8900118113923152,0.2376685578364376
-7.042034191515138,-3.643823716006054,-7.042034191515138,1,0.5618904901739129,0.8900118113923152,0.2376685578364376
-7.594589122299724,-3.9168441354090855,-7.594589122299724,1,0.5618904901739129,0.8900118113923152,0.2376685578364376
-7.228210882456663,-3.723416760249117,-7.228210882456663,1,0.5618904901739129,0.8900118113923152,0.2376685578364376
-8.545391223216527,-3.641398637281962,-8.545391223216527,1,0.5618904901739129,0.8900118113923152,0.2376685578364376
-7.722618613463795,-3.62773971040848,-7.722618613463795,1,0.5618904901739129,0.8900118113923152,0.2376685578364376
-7.047023506632107,-3.625415262819373,-7.047023506632107,1,0.5618904901739129,0.8900118113923152,0.2376685578364376
-8.335349894192083,-3.546739168174088,-8.335349894192083,1,0.5618904901739129,0.8900118113923152,0.2376685578364376
-7.644806759941499,-3.5872789127924296,-7.644806759941499,1,0.5618904901739129,0.8900118113923152,0.2376685578364376
-7.000978751301446,-3.6007999402034065,-7.000978751301446,1,0.5618904901739129,0.8900118113923152,0.2376685578364376
-8.456714394797226,-3.596288632120879,-8.456714394797226,1,0.5618904901739129,0.8900118113923152,0.2376685578364376
-7.741213559248921,-3.628890967828047,-7.741213559248921,1,0.5618904901739129,0.8900118113923152,0.2376685578364376
-7.072742489986314,-3.6322484872170646,-7.072742489986314,1,0.5618904901739129,0.8900118113923152,0.2376685578364376
-7.669331921866235,-3.925651292768993,-7.669331921866235,1,0.5618904901739129,0.8900118113923152,0.2376685578364376
-8.039574787572505,-3.749983030897688,-8.039574787572505,1,0.5618904901739129,0.8900118113923152,0.2376685578364376
-8.639256523825072,-3.650120037971276,-8.639256523825072,1,0.5618904901739129,0.8900118113923152,0.2376685578364376
-7.780775393457547,-3.625961989869116,-7.780775393457547,1,0.5618904901739129,0.8900118113923152,0.2376685578364376
-7.083025313991604,-3.616498163713557,-7.083025313991604,1,0.5618904901739129,0.8900118113923152,0.2376685578364376
-8.367375058727939,-3.530086958498107,-8.367375058727939,1,0.5618904901739129,0.8900118113923152,0.2376685578364376
-7.662121401899972,-3.566761883130534,-7.662121401899972,1,0.5618904901739129,0.8900118113923152,0.2376685578364376
-7.036040072400548,-3.5915792818801178,-7.036040072400548,1,0.5618904901739129,0.8900118113923152,0.2376685578364376
-8.5073276550281,-3.587032582359848,-8.5073276550281,1,0.5618904901739129,0.8900118113923152,0.2376685578364376
-7.784041057359287,-3.619880330330724,-7.784041057359287,1,0.5618904901739129,0.8900118113923152,0.2376685578364376
-7.08741505438496,-3.612348092230633,-7.08741505438496,1,0.5618904901739129,0.8900118113923152,0.2376685578364376
-7.779614166470482,-3.952026961020263,-7.779614166470482,1,0.5618904901739129,0.8900118113923152,0.2376685578364376
-8.095328047245566,-3.7457919358751575,-8.095328047245566,1,0.5618904901739129,0.8900118113923152,0.2376685578364376
-8.740619001513979,-3.6613840080406033,-8.740619001513979,1,0.5618904901739129,0.8900118113923152,0.2376685578364376
-7.792769417139804,-3.6024928238043605,-7.792769417139804,1,0.5618904901739129,0.8900118113923152,0.2376685578364376
-7.132404613184628,-3.6141670661694745,-7.132404613184628,1,0.5618904901739129,0.8900118113923152,0.2376685578364376
-8.451019145222862,-3.5348724672728955,-8.451019145222862,1,0.5618904901739129,0.8900118113923152,0.2376685578364376
-7.725676221656086,-3.567549820715695,-7.725676221656086,1,0.5618904901739129,0.8900118113923152,0.2376685578364376
-7.102331670805686,-3.597993800815817,-7.102331670805686,1,0.5618904901739129,0.8900118113923152,0.2376685578364376
-8.563499273809354,-3.5798134202718788,-8.563499273809354,1,0.5618904901739129,0.8900118113923152,0.2376685578364376
-7.835965025555328,-3.614828994144253,-7.835965025555328,1,0.5618904901739129,0.8900118113923152,0.2376685578364376
-7.197475382336632,-3.640669685822707,-7.197475382336632,1,0.5618904901739129,0.8900118113923152,0.2376685578364376
-7.890129400959686,-3.9777619243372335,-7.890129400959686,1,0.5618904901739129,0.8900118113923152,0.2376685578364376
-8.12850339189505,-3.730908353940296,-8.12850339189505,1,0.5618904901739129,0.8900118113923152,0.2376685578364376
-8.862406668092394,-3.68048033405727,-8.862406668092394,1,0.5618904901739129,0.8900118113923152,0.2376685578364376
-7.903624030507452,-3.6243509592121534,-7.903624030507452,1,0.5618904901739129,0.8900118113923152,0.2376685578364376
-7.192545954200685,-3.61695259285898,-7.192545954200685,1,0.5618904901739129,0.8900118113923152,0.2376685578364376
-8.502453229993629,-3.5257763605603407,-8.502453229993629,1,0.5618904901739129,0.8900118113923152,0.2376685578364376
-7.746584007146471,-3.548411087772081,-7.746584007146471,1,0.5618904901739129,0.8900118113923152,0.2376685578364376
-7.126737722184567,-3.5829245826545044,-7.126737722184567,1,0.5618904901739129,0.8900118113923152,0.2376685578364376
-8.541186704890137,-3.5397419179203515,-8.541186704890137,1,0.5618904901739129,0.8900118113923152,0.2376685578364376
-7.87793010120731,-3.604916655574808,-7.87793010120731,1,0.5618904901739129,0.8900118113923152,0.2376685578364376
-7.239879020090247,-3.63426673122584,-7.239879020090247,1,0.5618904901739129,0.8900118113923152,0.2376685578364376
-7.865883605314015,-3.9353198089671295,-7.865883605314015,1,0.5618904901739129,0.8900118113923152,0.2376685578364376
-8.145349295282957,-3.708428865595304,-8.145349295282957,1,0.5618904901739129,0.8900118113923152,0.2376685578364376
-7.532803062184874,-3.7640772070241537,-7.532803062184874,1,0.5618904901739129,0.8900118113923152,0.2376685578364376
-8.918873714146184,-3.671889411084312,-8.918873714146184,1,0.5618904901739129,0.8900118113923152,0.2376685578364376
-7.95197134200583,-3.617036308552804,-7.95197134200583,1,0.5618904901739129,0.8900118113923152,0.2376685578364376
-7.269754082669017,-3.6278783588472936,-7.269754082669017,1,0.5618904901739129,0.8900118113923152,0.2376685578364376
-8.525248825660276,-3.50461538234037,-8.525248825660276,1,0.5618904901739129,0.8900118113923152,0.2376685578364376
-7.843910999336326,-3.5639194530644307,-7.843910999336326,1,0.5618904901739129,0.8900118113923152,0.2376685578364376
-7.20033173812032,-3.5922920023493026,-7.20033173812032,1,0.5618904901739129,0.8900118113923152,0.2376685578364376
-8.61675199067343,-3.540121524979688,-8.61675199067343,1,0.5618904901739129,0.8900118113923152,0.2376685578364376
-7.885310509716509,-3.579077585250724,-7.885310509716509,1,0.5618904901739129,0.8900118113923152,0.2376685578364376
-7.314521450730456,-3.6436834789130432,-7.314521450730456,1,0.5618904901739129,0.8900118113923152,0.2376685578364376
-8.033575551943242,-3.988447463087284,-8.033575551943242,1,0.5618904901739129,0.8900118113923152,0.2376685578364376
-8.952271728135747,-3.6535593859180935,-8.952271728135747,1,0.5618904901739129,0.8900118113923152,0.2376685578364376
-7.975772362549486,-3.5983718424372437,-7.975772362549486,1,0.5618904901739129,0.8900118113923152,0.2376685578364376
-7.297859257348471,-3.613981093131736,-7.297859257348471,1,0.5618904901739129,0.8900118113923152,0.2376685578364376
-8.772016140471505,-3.574637647981481,-8.772016140471505,1,0.5618904901739129,0.8900118113923152,0.2376685578364376
-7.914058605535663,-3.566539731197324,-7.914058605535663,1,0.5618904901739129,0.8900118113923152,0.2376685578364376
-7.290180014700794,-3.609227452444972,-7.290180014700794,1,0.5618904901739129,0.8900118113923152,0.2376685578364376
-8.79519715265234,-3.581935957172365,-8.79519715265234,1,0.5618904901739129,0.8900118113923152,0.2376685578364376
-8.01568757674602,-3.6086373318007534,-8.01568757674602,1,0.5618904901739129,0.8900118113923152,0.2376685578364376
-7.354341250186991,-3.635400660404695,-7.354341250186991,1,0.5618904901739129,0.8900118113923152,0.2376685578364376
-8.05148601845747,-3.6028421956933503,-8.05148601845747,1,0.5618904901739129,0.8900118113923152,0.2376685578364376
-7.33849983695225,-3.606113583418987,-7.33849983695225,1,0.5618904901739129,0.8900118113923152,0.2376685578364376
-8.880262611855882,-3.5870194223677214,-8.880262611855882,1,0.5618904901739129,0.8900118113923152,0.2376685578364376
-7.994336473620335,-3.573250898456897,-7.994336473620335,1,0.5618904901739129,0.8900118113923152,0.2376685578364376
-7.318271040073095,-3.5952220389600047,-7.318271040073095,1,0.5618904901739129,0.8900118113923152,0.2376685578364376
-8.871980033073836,-3.5815126854206363,-8.871980033073836,1,0.5618904901739129,0.8900118113923152,0.2376685578364376
-8.09245322508222,-3.613378992015549,-8.09245322508222,1,0.5618904901739129,0.8900118113923152,0.2376685578364376
-7.377126830286754,-3.618543505127336,-7.377126830286754,1,0.5618904901739129,0.8900118113923152,0.2376685578364376
-8.302911247394155,-3.6882866041082862,-8.302911247394155,1,0.5618904901739129,0.8900118113923152,0.2376685578364376
-8.088968160550632,-3.589869700264747,-8.088968160550632,1,0.5618904901739129,0.8900118113923152,0.2376685578364376
-7.386343357044385,-3.6015332897341468,-7.386343357044385,1,0.5618904901739129,0.8900118113923152,0.2376685578364376
-8.96268203236241,-3.5883672316506465,-8.96268203236241,1,0.5618904901739129,0.8900118113923152,0.2376685578364376
-8.042737160055134,-3.5653208777652057,-8.042737160055134,1,0.5618904901739129,0.8900118113923152,0.2376685578364376
-7.364321970814736,-3.589841092160222,-7.364321970814736,1,0.5618904901739129,0.8900118113923152,0.2376685578364376
-9.06489219071586,-3.627086130682733,-9.06489219071586,1,0.5618904901739129,0.8900118113923152,0.2376685578364376
-8.081560325587327,-3.578818642424689,-8.081560325587327,1,0.5618904901739129,0.8900118113923152,0.2376685578364376
-7.414258846228531,-3.608579891545432,-7.414258846228531,1,0.5618904901739129,0.8900118113923152,0.2376685578364376
-8.207784749889198,-3.61250035004734,-8.207784749889198,1,0.5618904901739129,0.8900118113923152,0.2376685578364376
-7.437824978786535,-3.5984332461868047,-7.437824978786535,1,0.5618904901739129,0.8900118113923152,0.2376685578364376
-8.969932245554427,-3.559378471652135,-8.969932245554427,1,0.5618904901739129,0.8900118113923152,0.2376685578364376
-8.079265889161746,-3.551896125187271,-8.079265889161746,1,0.5618904901739129,0.8900118113923152,0.2376685578364376
-7.441015250214611,-3.5990150248143524,-7.441015250214611,1,0.5618904901739129,0.8900118113923152,0.2376685578364376
-8.046729584412896,-3.5339060138074188,-8.046729584412896,1,0.5618904901739129,0.8900118113923152,0.2376685578364376
-7.4838041844650895,-3.614071662335181,-7.4838041844650895,1,0.5618904901739129,0.8900118113923152,0.2376685578364376
-8.248113326521757,-3.6000840353979475,-8.248113326521757,1,0.5618904901739129,0.8900118113923152,0.2376685578364376
-7.510971060331407,-3.6054265495994975,-7.510971060331407,1,0.5618904901739129,0.8900118113923152,0.2376685578364376
-8.437486471382107,-3.678533554306509,-8.437486471382107,1,0.5618904901739129,0.8900118113923152,0.2376685578364376
-7.489885876070335,-3.5943400742632257,-7.489885876070335,1,0.5618904901739129,0.8900118113923152,0.2376685578364376
-8.294035142727193,-3.61220272030848,-8.294035142727193,1,0.5618904901739129,0.8900118113923152,0.2376685578364376
-7.601230963499121,-3.642062660315213,-7.601230963499121,1,0.5618904901739129,0.8900118113923152,0.2376685578364376
-8.295774087756396,-3.5906270634661843,-8.295774087756396,1,0.5618904901739129,0.8900118113923152,0.2376685578364376
-7.595954463638764,-3.6175884280654502,-7.595954463638764,1,0.5618904901739129,0.8900118113923152,0.2376685578364376
-8.713959384890385,-3.767295657544555,-8.713959384890385,1,0.5618904901739129,0.8900118113923152,0.2376685578364376
-7.550534698315348,-3.594987238405412,-7.550534698315348,1,0.5618904901739129,0.8900118113923152,0.2376685578364376
-8.338121632753039,-3.601010995979068,-8.338121632753039,1,0.5618904901739129,0.8900118113923152,0.2376685578364376
-7.661119555903891,-3.641900364153926,-7.661119555903891,1,0.5618904901739129,0.8900118113923152,0.2376685578364376
-8.710801997561745,-3.742174379136573,-8.710801997561745,1,0.5618904901739129,0.8900118113923152,0.2376685578364376
-8.336112880195392,-3.5777610217526075,-8.336112880195392,1,0.5618904901739129,0.8900118113923152,0.2376685578364376
-7.6359204706593715,-3.607924162061884,-7.6359204706593715,1,0.5618904901739129,0.8900118113923152,0.2376685578364376
-8.728233239433052,-3.7417258814866514,-8.728233239433052,1,0.5618904901739129,0.8900118113923152,0.2376685578364376
-7.589557370320786,-3.5850456457159727,-7.589557370320786,1,0.5618904901739129,0.8900118113923152,0.2376685578364376
-8.368431681477267,-3.5836784172709097,-8.368431681477267,1,0.5618904901739129,0.8900118113923152,0.2376685578364376
-7.691243336503591,-3.627333431058576,-7.691243336503591,1,0.5618904901739129,0.8900118113923152,0.2376685578364376
-8.466079970395679,-3.978900922029853,-8.466079970395679,1,0.5618904901739129,0.8900118113923152,0.2376685578364376
-8.843180570997008,-3.7669489987897538,-8.843180570997008,1,0.5618904901739129,0.8900118113923152,0.2376685578364376
-8.428821131479689,-3.586967852838209,-8.428821131479689,1,0.5618904901739129,0.8900118113923152,0.2376685578364376
-7.717507526713235,-3.6175521460672098,-7.717507526713235,1,0.5618904901739129,0.8900118113923152,0.2376685578364376
-8.791201092294278,-3.736833518419795,-8.791201092294278,1,0.5618904901739129,0.8900118113923152,0.2376685578364376
-7.636739524169934,-3.578717177815636,-7.636739524169934,1,0.5618904901739129,0.8900118113923152,0.2376685578364376
-8.442887660854208,-3.584950905249456,-8.442887660854208,1,0.5618904901739129,0.8900118113923152,0.2376685578364376
-7.697808349553607,-3.6016019512935844,-7.697808349553607,1,0.5618904901739129,0.8900118113923152,0.2376685578364376
-8.522348510703555,-3.973470222183346,-8.522348510703555,1,0.5618904901739129,0.8900118113923152,0.2376685578364376
-8.831760655267432,-3.730113949940016,-8.831760655267432,1,0.5618904901739129,0.8900118113923152,0.2376685578364376
-8.506943278385512,-3.58942822667254,-8.506943278385512,1,0.5618904901739129,0.8900118113923152,0.2376685578364376
-7.753027194105091,-3.605231193503399,-7.753027194105091,1,0.5618904901739129,0.8900118113923152,0.2376685578364376
-8.815522594842221,-3.715281012066213,-8.815522594842221,1,0.5618904901739129,0.8900118113923152,0.2376685578364376
-7.730198572930846,-3.593631210551064,-7.730198572930846,1,0.5618904901739129,0.8900118113923152,0.2376685578364376
-8.482412801911183,-3.5710579033331986,-8.482412801911183,1,0.5618904901739129,0.8900118113923152,0.2376685578364376
-7.768664209377433,-3.60574372842584,-7.768664209377433,1,0.5618904901739129,0.8900118113923152,0.2376685578364376
-8.539005555111256,-3.949390052537579,-8.539005555111256,1,0.5618904901739129,0.8900118113923152,0.2376685578364376
-8.095315026693243,-3.7393765823514022,-8.095315026693243,1,0.5618904901739129,0.8900118113923152,0.2376685578364376
-8.49857132373775,-3.5552201349342982,-8.49857132373775,1,0.5618904901739129,0.8900118113923152,0.2376685578364376
-7.767679838746369,-3.583102057470995,-7.767679838746369,1,0.5618904901739129,0.8900118113923152,0.2376685578364376
-8.832414369107866,-3.6905309042913097,-8.832414369107866,1,0.5618904901739129,0.8900118113923152,0.2376685578364376
-7.733922917270724,-3.5665484053978287,-7.733922917270724,1,0.5618904901739129,0.8900118113923152,0.2376685578364376
-8.59759232047893,-3.588535849791371,-8.59759232047893,1,0.5618904901739129,0.8900118113923152,0.2376685578364376
-7.825089871748196,-3.602795533362817,-7.825089871748196,1,0.5618904901739129,0.8900118113923152,0.2376685578364376
-8.130307235057048,-3.7253172037208953,-8.130307235057048,1,0.5618904901739129,0.8900118113923152,0.2376685578364376
-8.647788673728646,-3.586508080622965,-8.647788673728646,1,0.5618904901739129,0.8900118113923152,0.2376685578364376
-7.826781185640164,-3.581283915153696,-7.826781185640164,1,0.5618904901739129,0.8900118113923152,0.2376685578364376
-8.814136887429916,-3.6511715350031326,-8.814136887429916,1,0.5618904901739129,0.8900118113923152,0.2376685578364376
-7.789385852291458,-3.5631866940236177,-7.789385852291458,1,0.5618904901739129,0.8900118113923152,0.2376685578364376
-8.620571908973911,-3.5671118185139696,-8.620571908973911,1,0.5618904901739129,0.8900118113923152,0.2376685578364376
-7.852473142978584,-3.5862463840454946,-7.852473142978584,1,0.5618904901739129,0.8900118113923152,0.2376685578364376
-8.144420024026799,-3.701593397641177,-8.144420024026799,1,0.5618904901739129,0.8900118113923152,0.2376685578364376
-8.764030223304328,-3.60324468456834,-8.764030223304328,1,0.5618904901739129,0.8900118113923152,0.2376685578364376
-7.921421060217026,-3.59523869743339,-7.921421060217026,1,0.5618904901739129,0.8900118113923152,0.2376685578364376
-8.624596063077433,-3.5416949901139696,-8.624596063077433,1,0.5618904901739129,0.8900118113923152,0.2376685578364376
-7.893163211598869,-3.5814165189907445,-7.893163211598869,1,0.5618904901739129,0.8900118113923152,0.2376685578364376
-8.657376310129932,-3.551272092334214,-8.657376310129932,1,0.5618904901739129,0.8900118113923152,0.2376685578364376
-7.901681105122803,-3.579462490277804,-7.901681105122803,1,0.5618904901739129,0.8900118113923152,0.2376685578364376
-8.193900151009986,-3.693792484799266,-8.193900151009986,1,0.5618904901739129,0.8900118113923152,0.2376685578364376
-8.784290524437951,-3.580108703170749,-8.784290524437951,1,0.5618904901739129,0.8900118113923152,0.2376685578364376
-7.974317030012306,-3.589782505872239,-7.974317030012306,1,0.5618904901739129,0.8900118113923152,0.2376685578364376
-8.70117077949736,-3.54198308048891,-8.70117077949736,1,0.5618904901739129,0.8900118113923152,0.2376685578364376
-7.944236566971261,-3.575240497871735,-7.944236566971261,1,0.5618904901739129,0.8900118113923152,0.2376685578364376
-8.873844722828641,-3.608302200150675,-8.873844722828641,1,0.5618904901739129,0.8900118113923152,0.2376685578364376
-8.011100578556638,-3.599449060277017,-8.011100578556638,1,0.5618904901739129,0.8900118113923152,0.2376685578364376
-8.24704748713615,-3.687349939151477,-8.24704748713615,1,0.5618904901739129,0.8900118113923152,0.2376685578364376
-8.980395370289424,-3.627944980160186,-8.980395370289424,1,0.5618904901739129,0.8900118113923152,0.2376685578364376
-8.029077766525042,-3.5848499815196693,-8.029077766525042,1,0.5618904901739129,0.8900118113923152,0.2376685578364376
-8.882601387353889,-3.5841103484246037,-8.882601387353889,1,0.5618904901739129,0.8900118113923152,0.2376685578364376
-7.981647920984136,-3.5626709013168347,-7.981647920984136,1,0.5618904901739129,0.8900118113923152,0.2376685578364376
-8.870963627254024,-3.5754542832736957,-8.870963627254024,1,0.5618904901739129,0.8900118113923152,0.2376685578364376
-8.027583871827645,-3.577295720408169,-8.027583871827645,1,0.5618904901739129,0.8900118113923152,0.2376685578364376
-8.52618830986128,-3.780812745199158,-8.52618830986128,1,0.5618904901739129,0.8900118113923152,0.2376685578364376
-8.988703021289663,-3.59926277755694,-8.988703021289663,1,0.5618904901739129,0.8900118113923152,0.2376685578364376
-8.040952101791463,-3.5606046999347933,-8.040952101791463,1,0.5618904901739129,0.8900118113923152,0.2376685578364376
-8.94275740310305,-3.5765197630621675,-8.94275740310305,1,0.5618904901739129,0.8900118113923152,0.2376685578364376
-8.02911610275653,-3.554357897973232,-8.02911610275653,1,0.5618904901739129,0.8900118113923152,0.2376685578364376
-8.076921580045127,-3.569621878422656,-8.076921580045127,1,0.5618904901739129,0.8900118113923152,0.2376685578364376
-8.171659363805066,-3.5885376512607987,-8.171659363805066,1,0.5618904901739129,0.8900118113923152,0.2376685578364376
-9.024328531322174,-3.5770674081189835,-9.024328531322174,1,0.5618904901739129,0.8900118113923152,0.2376685578364376
-8.296354102492133,-3.642260231024925,-8.296354102492133,1,0.5618904901739129,0.8900118113923152,0.2376685578364376
-8.148260889207675,-3.571309164901836,-8.148260889207675,1,0.5618904901739129,0.8900118113923152,0.2376685578364376
-8.281547299601849,-3.606527922631249,-8.281547299601849,1,0.5618904901739129,0.8900118113923152,0.2376685578364376
-8.201135166230602,-3.570487532611028,-8.201135166230602,1,0.5618904901739129,0.8900118113923152,0.2376685578364376
-8.214184624591065,-3.5702015516471715,-8.214184624591065,1,0.5618904901739129,0.8900118113923152,0.2376685578364376
-8.608194002758657,-3.7227517559222414,-8.608194002758657,1,0.5618904901739129,0.8900118113923152,0.2376685578364376
-8.318252513695072,-3.592193015804383,-8.318252513695072,1,0.5618904901739129,0.8900118113923152,0.2376685578364376
-8.31762750094864,-3.590889926961009,-8.31762750094864,1,0.5618904901739129,0.8900118113923152,0.2376685578364376
-8.258146533827228,-3.5592273118317954,-8.258146533827228,1,0.5618904901739129,0.8900118113923152,0.2376685578364376
-8.365048896191357,-3.581992132720204,-8.365048896191357,1,0.5618904901739129,0.8900118113923152,0.2376685578364376
-8.349748608669026,-3.5744059567216007,-8.349748608669026,1,0.5618904901739129,0.8900118113923152,0.2376685578364376
-8.330613156064587,-3.5601943506716927,-8.330613156064587,1,0.5618904901739129,0.8900118113923152,0.2376685578364376
-8.684989486683094,-3.692872454821207,-8.684989486683094,1,0.5618904901739129,0.8900118113923152,0.2376685578364376
-8.410021245580806,-3.570757299651309,-8.410021245580806,1,0.5618904901739129,0.8900118113923152,0.2376685578364376
-8.650625020596749,-3.6718444207506025,-8.650625020596749,1,0.5618904901739129,0.8900118113923152,0.2376685578364376
-8.39395822920596,-3.556849901902395,-8.39395822920596,1,0.5618904901739129,0.8900118113923152,0.2376685578364376
-8.88087560936759,-3.744033155746125,-8.88087560936759,1,0.5618904901739129,0.8900118113923152,0.2376685578364376
-8.493674013292646,-3.575558819685248,-8.493674013292646,1,0.5618904901739129,0.8900118113923152,0.2376685578364376
-8.832358292248882,-3.71704497242936,-8.832358292248882,1,0.5618904901739129,0.8900118113923152,0.2376685578364376
-8.626010541306991,-3.624003995098168,-8.626010541306991,1,0.5618904901739129,0.8900118113923152,0.2376685578364376
-8.886802550060828,-3.714463247424879,-8.886802550060828,1,0.5618904901739129,0.8900118113923152,0.2376685578364376
-8.546089525457154,-3.566798206673555,-8.546089525457154,1,0.5618904901739129,0.8900118113923152,0.2376685578364376
-8.837260667283612,-3.687235053911368,-8.837260667283612,1,0.5618904901739129,0.8900118113923152,0.2376685578364376
-8.645393826150366,-3.600981819390885,-8.645393826150366,1,0.5618904901739129,0.8900118113923152,0.2376685578364376
-8.655762085544714,-3.5814298571535312,-8.655762085544714,1,0.5618904901739129,0.8900118113923152,0.2376685578364376
-8.791240997580145,-3.636407889649432,-8.791240997580145,1,0.5618904901739129,0.8900118113923152,0.2376685578364376
-8.649932569408818,-3.5717705927811627,-8.649932569408818,1,0.5618904901739129,0.8900118113923152,0.2376685578364376
